ply
format ascii 1.0
element vertex 1288
property float x
property float y
property float z
property uchar red
property uchar green
property uchar blue
end_header
73.8696 0.538605 30.4179 255 255 255
66.191 0.538069 9.82148 255 255 255
72.0862 0.372633 25.1338 255 255 255
72.6459 0.42301 26.3144 255 255 255
71.5871 0.33986 23.6337 255 255 255
69.4782 0.231599 18.1399 255 255 255
-17.7965 0.0592541 26.8863 255 255 255
62.3987 0.18628 -0.727814 255 255 255
71.1134 0.067017 22.3846 255 255 255
62.278 -0.337465 -1.12579 255 255 255
62.2994 -0.333686 -1.17171 255 255 255
70.1149 -0.325346 19.1883 255 255 255
70.0618 -0.364418 19.2565 255 255 255
70.7854 -0.439502 21.2774 255 255 255
-7.68973 -0.585833 33.4489 255 255 255
11.9124 -0.791684 30.924 255 255 255
69.4283 -0.688707 17.0726 255 255 255
69.694 -0.733009 18.1492 255 255 255
70.8536 -0.853615 20.5415 255 255 255
67.3041 -0.838992 11.2612 255 255 255
74.2378 -1.01927 29.7554 255 255 255
70.4713 -1.21087 19.8884 255 255 255
-15.4909 -1.58982 30.424 255 255 255
64.5495 -1.91753 2.45776 255 255 255
69.443 -1.73554 16.2803 255 255 255
73.1045 -1.76957 25.8839 255 255 255
72.2668 -1.79104 27.1035 255 255 255
67.2556 -2.04317 11.9933 255 255 255
71.0861 -2.14003 20.2005 255 255 255
71.0861 -2.14003 20.2005 255 255 255
68.3488 -2.35726 13.4657 255 255 255
-16.0289 -2.20113 30.6092 255 255 255
-20.3804 -2.44898 25.4021 255 255 255
69.0735 -2.95281 15.0888 255 255 255
69.0617 -2.94885 15.103 255 255 255
56.7861 -3.61634 -17.8156 255 255 255
57.022 -3.64575 -18.1486 255 255 255
-47.454 -3.53602 -33.8617 255 255 255
70.5287 -3.20453 17.8092 255 255 255
70.5287 -3.20452 17.8092 255 255 255
56.5272 -4.17885 -19.5109 255 255 255
63.2627 -3.88945 -1.98132 255 255 255
70.5423 -4.03741 17.6194 255 255 255
70.5175 -4.03723 17.6397 255 255 255
-18.2005 -3.5996 29.3338 255 255 255
-17.4734 -3.70954 30.0263 255 255 255
-15.7553 -3.76323 31.9414 255 255 255
-72.9992 -4.99525 -33.0735 255 255 255
75.0198 -4.81463 29.4504 255 255 255
59.7963 -6.11565 -12.9093 255 255 255
70.2909 -5.24023 17.4614 255 255 255
-2.10141 -4.54645 37.7751 255 255 255
-72.7046 -6.13936 -31.4244 255 255 255
70.9844 -5.50224 17.4483 255 255 255
72.1131 -5.55338 21.3275 255 255 255
55.6482 -7.23754 -25.1893 255 255 255
71.2249 -6.08261 18.0911 255 255 255
72.214 -6.1884 21.1553 255 255 255
71.9251 -6.30731 20.1609 255 255 255
-30.9219 -6.24609 13.7688 255 255 255
-18.9696 -5.75618 29.9288 255 255 255
68.3224 -6.96555 9.70036 255 255 255
-76.0397 -7.68919 -30.0738 255 255 255
60.5413 -8.08234 -12.7456 255 255 255
68.122 -7.25437 8.93369 255 255 255
73.8457 -6.5967 24.6548 255 255 255
56.7377 -8.57436 -22.9848 255 255 255
-74.3754 -7.94386 -28.4203 255 255 255
-22.5747 -6.29233 24.3753 255 255 255
3.90738 -5.99354 37.6834 255 255 255
72.0699 -7.23995 19.5558 255 255 255
72.4394 -7.31155 21.8181 255 255 255
74.7847 -7.21871 27.5122 255 255 255
74.818 -7.21374 27.5143 255 255 255
66.8704 -8.37901 4.23586 255 255 255
70.806 -7.79324 15.6261 255 255 255
72.118 -7.64272 20.4836 255 255 255
-92.8967 -8.80466 -27.5444 255 255 255
-93.2112 -8.87321 -28.5967 255 255 255
55.4165 -9.93331 -25.4159 255 255 255
67.7002 -8.61165 6.55018 255 255 255
73.3189 -7.85831 23.3887 255 255 255
-33.5664 -7.79116 15.0013 255 255 255
68.9223 -8.62637 10.3599 255 255 255
62.1911 -9.69021 -8.80716 255 255 255
62.191 -9.6902 -8.80699 255 255 255
-25.3368 -7.77504 21.7679 255 255 255
6.20123 -7.36866 37.5668 255 255 255
73.6671 -8.51662 23.2007 255 255 255
57.4731 -11.3216 -23.1589 255 255 255
-124.542 -10.1454 -26.9417 255 255 255
73.3451 -9.08098 22.1717 255 255 255
-3.34488 -7.73569 39.1067 255 255 255
-3.34835 -7.72663 39.1112 255 255 255
74.5552 -9.08752 25.6518 255 255 255
74.0134 -9.13272 23.9684 255 255 255
60.3919 -11.5515 -15.0455 255 255 255
73.6108 -9.48568 22.7162 255 255 255
61.9751 -11.6641 -10.2051 255 255 255
66.922 -11.0108 2.50886 255 255 255
5.70468 -8.74959 38.1632 255 255 255
69.6333 -11.2465 9.96227 255 255 255
-26.1914 -9.82666 24.3079 255 255 255
65.7805 -12.3203 -1.67113 255 255 255
74.5291 -10.7249 24.6096 255 255 255
65.5983 -12.9162 -2.99141 255 255 255
66.7806 -12.6063 1.262 255 255 255
66.8636 -12.6018 1.1714 255 255 255
75.5277 -11.2446 26.9451 255 255 255
59.5776 -14.483 -18.2254 255 255 255
59.5776 -14.483 -18.2253 255 255 255
66.9823 -13.0499 1.27815 255 255 255
-58.5415 -13.6171 -21.0067 255 255 255
67.7708 -13.4781 2.86011 255 255 255
67.77 -13.4768 2.86921 255 255 255
65.2483 -14.0535 -4.01153 255 255 255
-10.5583 -10.2929 38.3374 255 255 255
76.0843 -11.8341 27.7154 255 255 255
-14.4432 -10.5885 35.6611 255 255 255
75.8609 -11.9698 27.1848 255 255 255
63.0661 -14.9732 -10.6592 255 255 255
69.602 -13.7743 8.86221 255 255 255
75.7761 -12.3098 26.7252 255 255 255
-83.7864 -14.648 -21.5237 255 255 255
75.611 -12.5198 25.6192 255 255 255
-84.5165 -14.8652 -22.011 255 255 255
-10.7164 -10.9064 37.8787 255 255 255
-24.1839 -11.7253 27.1941 255 255 255
68.9984 -14.4018 6.22299 255 255 255
69.0378 -14.394 6.24091 255 255 255
75.8578 -12.7704 27.6017 255 255 255
63.496 -15.5787 -10.0149 255 255 255
60.7749 -16.6063 -17.1237 255 255 255
-45.3231 -15.7251 -18.305 255 255 255
6.20229 -11.7003 38.7366 255 255 255
-17.1225 -12.0177 33.9228 255 255 255
-61.0252 -16.1789 -17.7376 255 255 255
70.0209 -15.5654 7.60036 255 255 255
61.6066 -17.9287 -15.4843 255 255 255
-58.8997 -16.9027 -17.0745 255 255 255
11.6702 -12.7878 36.4324 255 255 255
-19.7917 -13.366 31.1113 255 255 255
68.4732 -17.2669 2.01808 255 255 255
69.8769 -16.8402 6.50914 255 255 255
69.8769 -16.8402 6.50917 255 255 255
68.6737 -17.3471 2.95156 255 255 255
-0.902689 -13.0011 40.272 255 255 255
-59.1073 -17.8885 -14.9308 255 255 255
-59.2085 -17.9254 -15.5022 255 255 255
67.6714 -17.7651 -0.746032 255 255 255
-25.4318 -14.3973 28.2073 255 255 255
-71.5428 -18.458 -15.2342 255 255 255
-12.938 -13.9526 37.1287 255 255 255
-28.0293 -15.2092 25.9252 255 255 255
-54.0856 -19.5651 -13.3069 255 255 255
-27.6034 -15.6287 26.338 255 255 255
-70.7992 -19.5346 -14.094 255 255 255
11.8479 -15.1415 35.4701 255 255 255
69.7992 -19.9593 4.14601 255 255 255
71.1816 -19.6463 8.16901 255 255 255
0.248976 -15.1744 40.1041 255 255 255
-66.7183 -21.3451 -11.7831 255 255 255
70.8876 -21.492 5.31032 255 255 255
76.6495 -19.3529 25.3787 255 255 255
-5.25795 -16.5068 39.7652 255 255 255
-68.1123 -22.3663 -10.482 255 255 255
6.77977 -17.0288 38.6975 255 255 255
-4.0219 -16.7967 39.7159 255 255 255
-22.1381 -17.3618 33.8697 255 255 255
7.2937 -17.2637 38.3874 255 255 255
70.3934 -22.9712 3.10243 255 255 255
70.4158 -22.9682 3.05316 255 255 255
-8.85693 -17.9482 38.5958 255 255 255
24.2678 -19.6021 30.4178 255 255 255
-11.4326 -18.2585 37.5121 255 255 255
-11.4424 -18.2517 37.5704 255 255 255
-17.8251 -18.5956 35.7396 255 255 255
-17.8251 -18.5956 35.7396 255 255 255
70.3906 -24.5459 2.56869 255 255 255
53.4969 -25.8364 -5.20616 255 255 255
-17.6917 -18.9681 36.3031 255 255 255
72.7601 -24.4687 8.08663 255 255 255
72.2307 -24.7853 7.765 255 255 255
72.2532 -24.7863 7.72609 255 255 255
70.4046 -25.4919 3.47925 255 255 255
56.0776 -26.6354 -3.79414 255 255 255
-23.1206 -20.1996 32.5051 255 255 255
52.6983 -26.8665 -4.37003 255 255 255
11.9792 -20.569 37.8141 255 255 255
68.4482 -27.7709 -2.87358 255 255 255
-22.2231 -20.993 33.4141 255 255 255
72.2082 -26.8783 6.87382 255 255 255
-51.0897 -26.9328 -4.01842 255 255 255
-9.19909 -21.0117 38.4394 255 255 255
53.2272 -28.7009 -1.4952 255 255 255
53.2347 -28.6877 -1.55034 255 255 255
-24.7345 -22.1396 34.41 255 255 255
53.7314 -29.43 -0.828231 255 255 255
53.7314 -29.43 -0.828211 255 255 255
74.3139 -28.1415 9.92824 255 255 255
74.6801 -28.1655 9.65152 255 255 255
-9.13554 -22.2179 40.3744 255 255 255
-26.3209 -23.5461 34.2085 255 255 255
9.09527 -23.1942 39.369 255 255 255
77.163 -28.4674 18.4658 255 255 255
-16.1479 -23.8943 37.4452 255 255 255
-16.1479 -23.8943 37.4452 255 255 255
-22.8107 -24.2757 37.1215 255 255 255
-27.7731 -25.5533 31.1081 255 255 255
78.1388 -30.1943 19.1238 255 255 255
79.1426 -29.654 23.5187 255 255 255
17.2337 -25.5793 38.3766 255 255 255
18.4687 -25.609 38.7111 255 255 255
-14.6059 -25.119 38.6003 255 255 255
-16.8833 -25.338 38.8594 255 255 255
-12.7504 -25.5209 38.8956 255 255 255
63.9803 -34.2017 5.68153 255 255 255
10.0838 -26.4284 39.7684 255 255 255
77.887 -32.6195 17.3422 255 255 255
77.2254 -32.4443 18.3097 255 255 255
-17.0091 -26.1001 39.3613 255 255 255
79.7546 -32.4804 22.0618 255 255 255
78.9567 -32.1229 24.0252 255 255 255
-11.9366 -26.9676 40.6759 255 255 255
-22.7975 -28.65 34.2908 255 255 255
12.7703 -27.8352 41.2311 255 255 255
3.30521 -27.7385 41.4253 255 255 255
-19.2714 -27.8252 41.7006 255 255 255
-7.81573 -28.3243 42.347 255 255 255
-7.83515 -28.3117 42.3873 255 255 255
61.7685 -37.7551 10.3082 255 255 255
-66.1645 -36.3212 6.53721 255 255 255
-50.3747 -36.3901 7.18594 255 255 255
7.71467 -29.1706 43.2429 255 255 255
-49.295 -36.6601 8.13359 255 255 255
-12.3245 -30.0604 41.6091 255 255 255
6.04789 -29.9521 44.2879 255 255 255
6.05429 -29.9677 44.258 255 255 255
-66.0156 -37.4146 8.33664 255 255 255
-48.8281 -37.3754 9.00434 255 255 255
-50.7978 -37.7173 8.89221 255 255 255
-2.84428 -30.2418 43.9804 255 255 255
50.1401 -39.3475 12.276 255 255 255
-13.8564 -31.7071 39.4253 255 255 255
-23.2287 -34.2955 30.1915 255 255 255
-1.01931 -32.6378 42.1317 255 255 255
16.4606 -35.8088 33.2156 255 255 255
-45.9641 -39.9694 12.9132 255 255 255
-23.2221 -36.0964 29.342 255 255 255
56.5812 -41.9771 15.1269 255 255 255
12.02 -36.6229 35.1567 255 255 255
3.0247 -35.7433 39.7351 255 255 255
-40.7513 -41.4773 16.7864 255 255 255
69.7379 -44.1052 19.6933 255 255 255
0.0624495 -39.158 37.6879 255 255 255
0.578816 -39.4895 37.2803 255 255 255
0.540555 -39.4601 37.4355 255 255 255
-0.0724993 -40.0263 36.9824 255 255 255
-0.105731 -39.9608 37.1861 255 255 255
-18.5851 -41.3099 31.7904 255 255 255
4.53124 -40.8851 35.4868 255 255 255
4.78844 -42.2634 34.5477 255 255 255
-9.1155 -42.4633 33.6966 255 255 255
60.913 -50.8384 28.3317 255 255 255
-16.4264 -45.6023 35.1328 255 255 255
36.1415 -50.9459 26.7128 255 255 255
34.1772 -51.3565 27.3513 255 255 255
34.0235 -51.2144 27.6928 255 255 255
34.7262 -51.4345 27.2656 255 255 255
49.6936 -52.1127 29.0756 255 255 255
-40.3143 -50.7792 26.535 255 255 255
-16.6819 -49.7364 31.9045 255 255 255
48.1876 -53.1475 29.5976 255 255 255
30.4323 -52.7213 28.8858 255 255 255
65.9702 -53.2605 31.8771 255 255 255
-28.7514 -51.3352 29.5654 255 255 255
41.5179 -53.6923 30.2086 255 255 255
32.3449 -53.8243 30.6075 255 255 255
49.5238 -54.2291 32.0472 255 255 255
-6.7223 -51.7528 34.4224 255 255 255
68.9312 -55.1399 35.3847 255 255 255
28.9309 -54.8661 33.2984 255 255 255
60.5492 -55.5815 35.358 255 255 255
39.494 -58.7015 36.8618 255 255 255
28.2638 -58.5926 36.8316 255 255 255
-31.7972 -57.4196 35.1464 255 255 255
22.8624 -59.197 37.655 255 255 255
-3.80192 -59.2394 37.5546 255 255 255
-44.3183 -59.3492 36.5229 255 255 255
-14.8975 -59.8342 38.8391 255 255 255
54.2735 -61.4082 42.6275 255 255 255
-13.7139 -60.2271 38.7994 255 255 255
-21.7391 -60.2455 39.0952 255 255 255
-13.1998 -60.7387 39.5734 255 255 255
-88.6574 -61.2636 36.7847 255 255 255
32.2865 -62.06 42.0692 255 255 255
-16.701 -61.0347 39.9481 255 255 255
39.0242 -62.4395 43.6533 255 255 255
-16.9304 -61.5231 40.6465 255 255 255
-6.76045 -62.5619 42.6617 255 255 255
20.834 -63.2034 43.8679 255 255 255
-41.934 -62.4846 41.2284 255 255 255
-10.8248 -62.7455 42.1735 255 255 255
-10.8028 -62.6873 42.2932 255 255 255
62.154 60.0407 -12.3681 255 255 255
-55.4422 67.4144 -43.0289 255 255 255
-44.1461 68.9569 -48.7105 255 255 255
64.5693 88.4216 -104.868 255 255 255
-72.6462 64.2283 -34.3172 255 255 255
-72.6457 64.1082 -34.0723 255 255 255
6.60958 77.3188 -75.9642 255 255 255
63.0265 58.5651 -11.3675 255 255 255
53.4546 85.395 -101.319 255 255 255
-88.5077 60.6359 -24.9217 255 255 255
-88.7294 60.9981 -26.2982 255 255 255
-66.69 63.9535 -38.1178 255 255 255
-34.5611 68.6724 -55.4504 255 255 255
-6.76947 73.4466 -70.9208 255 255 255
34.0361 80.6439 -92.3142 255 255 255
34.0361 80.6439 -92.3143 255 255 255
-77.1365 61.8352 -32.9634 255 255 255
72.674 86.924 -110.643 255 255 255
-59.5629 63.9887 -42.5155 255 255 255
78.9388 87.6252 -113.973 255 255 255
61.6807 57.1727 -15.4744 255 255 255
-71.3986 61.1307 -35.7864 255 255 255
-85.8711 58.8976 -28.5329 255 255 255
40.2744 79.4227 -96.5951 255 255 255
58.3265 58.4339 -23.4374 255 255 255
29.7575 77.5582 -90.7543 255 255 255
64.3932 54.5394 -9.2096 255 255 255
-55.0699 63.1021 -46.6538 255 255 255
-55.0927 63.1031 -46.74 255 255 255
29.6931 76.1604 -91.8954 255 255 255
-72.629 59.9425 -37.4249 255 255 255
-26.5591 66.7414 -62.5888 255 255 255
-26.5341 66.7321 -62.5957 255 255 255
57.6492 45.1661 18.9719 255 255 255
56.0043 46.0595 14.6651 255 255 255
37.551 76.4122 -93.8758 255 255 255
58.1436 44.4542 19.7072 255 255 255
35.0743 76.0213 -95.6811 255 255 255
-57.0367 60.6153 -47.4293 255 255 255
-57.0595 60.482 -46.8923 255 255 255
-71.5422 58.2532 -39.5104 255 255 255
-54.7847 60.3315 -48.8689 255 255 255
-54.7551 60.3214 -48.9087 255 255 255
-72.6569 57.7108 -38.6892 255 255 255
-41.5141 62.0682 -56.6361 255 255 255
-5.20484 66.5318 -75.9129 255 255 255
61.4283 40.0215 28.1829 255 255 255
-57.2499 58.5989 -48.4886 255 255 255
84.6428 80.7058 -122.492 255 255 255
-9.10184 65.3237 -74.6912 255 255 255
60.9996 52.2127 -20.6222 255 255 255
59.4035 41.5433 19.7154 255 255 255
60.6204 40.46 23.522 255 255 255
10.4231 68.0369 -85.547 255 255 255
85.5063 79.4254 -124.272 255 255 255
-126.03 67.0585 -82.2204 255 255 255
-2.76643 64.8816 -79.2493 255 255 255
61.8592 39.5485 24.2288 255 255 255
-128.891 67.7627 -87.8983 255 255 255
57.5463 41.3896 14.619 255 255 255
-6.00895 63.4137 -78.2031 255 255 255
-6.13743 63.2106 -77.1096 255 255 255
-18.58 61.3379 -72.523 255 255 255
11.9867 65.1432 -86.1543 255 255 255
63.9347 36.1427 33.5948 255 255 255
-55.432 56.1218 -52.4517 255 255 255
-13.8023 61.6265 -75.022 255 255 255
-13.7524 61.6377 -75.0559 255 255 255
27.8857 67.8922 -97.5075 255 255 255
58.3607 51.1561 -28.3691 255 255 255
58.4847 51.2903 -28.6833 255 255 255
59.3055 39.5523 18.7729 255 255 255
60.2229 50.1643 -25.3574 255 255 255
60.2229 50.1643 -25.3572 255 255 255
-25.1109 59.3169 -68.8122 255 255 255
-17.8537 60.2286 -73.4718 255 255 255
64.0894 36.5069 29.4361 255 255 255
-87.2013 50.9363 -34.3895 255 255 255
37.079 67.8375 -103.005 255 255 255
-62.118 53.8427 -48.872 255 255 255
-62.118 53.8427 -48.872 255 255 255
29.3502 66.6467 -99.0491 255 255 255
-7.0568 61.1294 -79.509 255 255 255
-24.4022 58.3715 -70.2396 255 255 255
-70.6914 52.1636 -44.1504 255 255 255
-38.629 56.2311 -62.4096 255 255 255
-25.9115 57.7803 -69.5194 255 255 255
-25.9038 57.7984 -69.548 255 255 255
-25.8742 57.8373 -69.8564 255 255 255
-84.4053 49.7852 -34.9996 255 255 255
-23.5043 57.3536 -71.7365 255 255 255
-6.26242 59.5837 -80.9507 255 255 255
-44.5254 54.2842 -59.7523 255 255 255
-84.2313 49.4364 -37.7104 255 255 255
64.41 34.9597 28.7075 255 255 255
58.1989 48.5667 -30.8449 255 255 255
-17.3821 55.6243 -69.812 255 255 255
-6.22794 58.1234 -82.365 255 255 255
64.8738 34.077 29.1454 255 255 255
66.8527 32.7684 34.3407 255 255 255
67.2299 31.9354 37.9599 255 255 255
-133.424 63.9042 -103.928 255 255 255
58.6756 46.7932 -30.9745 255 255 255
58.7199 46.8445 -31.0523 255 255 255
60.316 45.999 -27.2019 255 255 255
-8.56238 56.7439 -81.7786 255 255 255
-6.39124 56.9726 -82.7216 255 255 255
-57.4685 49.9358 -55.4249 255 255 255
-41.1215 51.7788 -64.4205 255 255 255
-41.7245 50.9289 -64.8571 255 255 255
-44.9513 50.3945 -62.7679 255 255 255
-57.3467 47.9018 -56.4304 255 255 255
-71.1635 46.1107 -48.933 255 255 255
-44.9872 48.8206 -63.9849 255 255 255
-74.5031 45.284 -46.3297 255 255 255
-48.2134 48.1942 -62.5047 255 255 255
-27.6201 50.7165 -74.2332 255 255 255
-68.4607 45.6897 -50.9402 255 255 255
-68.4607 45.6897 -50.9403 255 255 255
-46.7347 47.8645 -62.398 255 255 255
-46.6098 48.1739 -62.8886 255 255 255
-63.233 46.1412 -54.2011 255 255 255
59.3723 32.865 14.1579 255 255 255
-54.4361 45.8987 -58.2853 255 255 255
-47.6982 45.9038 -64.3221 255 255 255
56.5741 33.0238 6.59857 255 255 255
56.1522 32.9664 5.96737 255 255 255
-25.5815 47.4731 -77.7957 255 255 255
-57.2862 43.6677 -59.9296 255 255 255
-57.1989 43.6105 -59.8274 255 255 255
-57.7008 42.8939 -60.4632 255 255 255
-57.7127 42.8683 -60.3696 255 255 255
-4.85088 48.2139 -90.8948 255 255 255
-4.75477 48.2782 -91.229 255 255 255
-88.8338 39.6639 -41.8353 255 255 255
-59.2033 42.3768 -59.697 255 255 255
61.9559 37.1952 -28.2213 255 255 255
-81.3629 39.7705 -47.0527 255 255 255
-81.3153 39.7657 -46.95 255 255 255
62.8789 35.5499 -25.8268 255 255 255
-44.2113 41.5955 -70.131 255 255 255
63.6793 34.8354 -25.1694 255 255 255
60.4628 27.6469 13.6053 255 255 255
64.2421 33.9221 -23.9128 255 255 255
63.343 34.1719 -26.4304 255 255 255
-77.9232 37.0306 -49.3533 255 255 255
59.5878 35.1568 -36.6893 255 255 255
68.4243 24.1509 31.9089 255 255 255
-134.929 46.267 -101.644 255 255 255
63.9506 33.0454 -25.6316 255 255 255
63.9573 33.0534 -25.6659 255 255 255
60.2596 26.6822 12.4302 255 255 255
-91.5935 34.8032 -43.8827 255 255 255
-91.6737 34.8122 -44.125 255 255 255
-72.2231 36.2904 -55.9813 255 255 255
-65.147 36.7716 -59.9426 255 255 255
65.8872 24.185 25.3904 255 255 255
-90.5939 34.6583 -45.4472 255 255 255
68.0425 23.0132 29.9069 255 255 255
67.9818 22.9962 30.0025 255 255 255
69.3103 22.3736 33.3686 255 255 255
56.4971 38.7537 -86.5078 255 255 255
-63.931 34.1644 -62.3304 255 255 255
-37.8711 35.3735 -79.1224 255 255 255
-90.5926 31.322 -47.0319 255 255 255
-84.8365 31.7421 -51.7146 255 255 255
-80.7099 31.9737 -59.2402 255 255 255
-79.2262 31.9058 -58.8988 255 255 255
-124.733 36.1848 -88.1433 255 255 255
58.1469 22.6056 4.24995 255 255 255
58.153 22.608 4.23414 255 255 255
61.1185 21.5442 11.9929 255 255 255
66.4511 19.9145 24.2806 255 255 255
58.3148 21.9021 4.11903 255 255 255
67.0792 19.5907 24.447 255 255 255
-3.94203 31.3244 -77.923 255 255 255
70.2928 18.3318 32.6686 255 255 255
70.4639 18.2212 33.2877 255 255 255
4.83448 29.6929 -75.8129 255 255 255
62.936 19.6253 14.7295 255 255 255
1.88862 29.5148 -75.9374 255 255 255
57.8227 20.7664 1.78296 255 255 255
-93.535 26.4052 -50.3625 255 255 255
4.35664 27.8577 -73.6022 255 255 255
-49.3766 28.0991 -74.7058 255 255 255
56.9592 19.9532 -0.82079 255 255 255
3.57222 26.7447 -71.0224 255 255 255
5.0451 27.0328 -72.1317 255 255 255
4.99913 27.0302 -72.0258 255 255 255
66.4257 17.2877 22.3262 255 255 255
-42.2369 27.1237 -73.5842 255 255 255
-10.1739 26.1589 -71.2726 255 255 255
-10.2135 26.2059 -71.4364 255 255 255
5.95796 26.2107 -71.4842 255 255 255
-13.7692 26.1087 -71.0577 255 255 255
-119.293 27.2962 -74.8654 255 255 255
-89.1045 24.2777 -54.2421 255 255 255
40.4344 24.4831 -68.3414 255 255 255
-38.937 23.9619 -67.939 255 255 255
-92.4311 22.1931 -53.0101 255 255 255
-117.482 24.4153 -71.5976 255 255 255
71.1192 14.0129 31.7257 255 255 255
-91.4316 21.7212 -52.6751 255 255 255
61.3186 15.9123 6.61647 255 255 255
71.7345 13.3303 33.5358 255 255 255
-10.852 21.5035 -65.1617 255 255 255
28.1441 21.4098 -64.9053 255 255 255
-93.2688 20.3912 -54.4683 255 255 255
70.8089 12.5457 30.7504 255 255 255
71.3078 12.4192 32.0529 255 255 255
-20.7549 19.8264 -65.1532 255 255 255
70.977 12.4107 31.4065 255 255 255
71.0409 12.4062 31.3294 255 255 255
70.9405 11.8899 30.9674 255 255 255
71.6109 11.831 31.8946 255 255 255
71.4183 11.5238 30.8998 255 255 255
71.4183 11.5238 30.8998 255 255 255
-62.2486 17.6858 -60.4692 255 255 255
55.8212 12.9199 -6.88526 255 255 255
60.0307 12.5789 0.78209 255 255 255
65.7286 11.5185 15.9682 255 255 255
70.6514 10.5519 29.2646 255 255 255
71.1553 10.2762 30.2447 255 255 255
-12.0797 14.24 -56.153 255 255 255
59.5793 10.7137 -0.916504 255 255 255
59.8666 10.1928 -0.358298 255 255 255
66.3976 8.79072 15.7552 255 255 255
59.9164 8.99052 -0.881779 255 255 255
-18.256 11.145 -52.1262 255 255 255
66.643 8.07684 16.0888 255 255 255
66.6461 8.07346 16.101 255 255 255
-5.35116 6.73782 22.8615 255 255 255
71.1227 6.7069 27.4515 255 255 255
71.105 6.70283 27.4785 255 255 255
-58.1363 9.96777 -50.7774 255 255 255
64.9057 7.23062 10.6194 255 255 255
64.8766 7.19481 10.6423 255 255 255
-45.9902 8.8007 -49.5265 255 255 255
66.3373 6.23835 16.111 255 255 255
-25.7836 8.35772 -48.5719 255 255 255
-92.1536 8.8381 -48.8797 255 255 255
-49.8735 8.04618 -48.243 255 255 255
60.3605 6.63531 -2.89473 255 255 255
-46.4313 7.53734 -50.9006 255 255 255
-42.1327 6.75172 -45.456 255 255 255
-49.1102 6.47633 -46.7964 255 255 255
71.8945 4.2882 27.2698 255 255 255
62.3798 4.31832 2.14849 255 255 255
-131.296 6.66357 -47.064 255 255 255
-16.9995 2.99499 23.3913 255 255 255
64.9879 3.48657 7.47563 255 255 255
-32.7337 4.24097 -43.9734 255 255 255
66.1067 3.20592 11.05 255 255 255
66.1379 3.20598 11.0035 255 255 255
-75.6521 4.67774 -44.8309 255 255 255
-53.8792 4.16287 -43.0785 255 255 255
66.4683 2.80975 11.5011 255 255 255
67.5814 2.57532 14.6832 255 255 255
67.5941 2.57657 14.6608 255 255 255
69.4225 2.13849 21.3613 255 255 255
67.0964 1.79594 12.7763 255 255 255
68.6932 1.92778 17.1303 255 255 255
68.3941 1.63378 16.1075 255 255 255
-20.6696 1.45541 10.7784 255 255 255
66.3444 0.742478 10.5036 255 255 255
66.3444 0.742477 10.5036 255 255 255
-21.8447 0.523582 11.2113 255 255 255
72.273 0.268226 25.7162 255 255 255
72.2748 0.275843 25.7074 255 255 255
72.2748 0.275841 25.7074 255 255 255
67.0982 0.0128311 12.5053 255 255 255
66.6962 -0.166574 10.4812 255 255 255
69.5079 -0.257682 17.5101 255 255 255
69.5101 -0.256913 17.51 255 255 255
-10.0746 -0.538799 33.2387 255 255 255
63.2888 -0.791243 -0.697002 255 255 255
-21.8259 -0.621583 11.9034 255 255 255
60.2332 -0.999924 -7.477 255 255 255
60.5367 -1.02318 -8.11889 255 255 255
69.2001 -0.94455 16.2535 255 255 255
70.3681 -0.982778 19.3986 255 255 255
71.4565 -0.975553 22.6271 255 255 255
11.2354 -1.50178 31.8204 255 255 255
70.9104 -1.85966 19.4313 255 255 255
67.41 -2.1505 10.02 255 255 255
-49.3892 -2.34943 -35.604 255 255 255
69.2595 -2.12612 15.6837 255 255 255
69.2677 -2.12503 15.6704 255 255 255
-49.314 -3.08395 -35.0224 255 255 255
58.567 -3.37184 -13.9174 255 255 255
68.9022 -3.02784 14.2013 255 255 255
70.7174 -3.02704 18.5264 255 255 255
59.1887 -4.02008 -13.1875 255 255 255
-46.1099 -3.98202 -33.2721 255 255 255
-6.63103 -3.06107 36.5262 255 255 255
66.0202 -4.01804 5.81383 255 255 255
69.3389 -3.73534 15.194 255 255 255
58.1883 -4.7031 -16.9727 255 255 255
66.3799 -4.54424 6.41693 255 255 255
66.3934 -4.55188 6.41011 255 255 255
-11.1503 -4.32936 35.5634 255 255 255
-49.9487 -6.84525 -29.6823 255 255 255
65.9976 -6.41012 4.2545 255 255 255
66.1301 -6.38453 4.00818 255 255 255
-75.759 -6.86421 -30.3167 255 255 255
68.0182 -6.43862 8.78679 255 255 255
-3.71805 -5.28699 38.3015 255 255 255
67.4735 -7.12227 6.95271 255 255 255
-1.15319 -5.67899 38.6486 255 255 255
73.0129 -6.59975 22.7384 255 255 255
-70.8846 -7.81339 -28.565 255 255 255
66.7236 -7.47483 4.82839 255 255 255
68.5509 -7.78296 9.37104 255 255 255
73.1865 -8.03667 22.6594 255 255 255
66.4863 -9.12929 2.57199 255 255 255
73.7523 -8.17403 25.0035 255 255 255
69.5409 -8.98969 12.1748 255 255 255
66.1344 -9.78052 1.28496 255 255 255
57.7225 -11.4033 -21.7796 255 255 255
70.3827 -9.76593 13.2932 255 255 255
70.3827 -9.76594 13.2932 255 255 255
-115.611 -10.5311 -25.1942 255 255 255
-51.3658 -11.0897 -24.0513 255 255 255
-20.0568 -8.48139 29.5191 255 255 255
4.89119 -8.2784 38.355 255 255 255
68.5312 -10.8593 7.29403 255 255 255
73.8739 -9.87182 23.2547 255 255 255
70.6408 -10.6853 13.3905 255 255 255
50.7886 -12.8521 -19.551 255 255 255
60.3777 -13.0045 -14.782 255 255 255
63.4439 -12.6235 -7.73516 255 255 255
68.3541 -11.7315 6.18743 255 255 255
68.3541 -11.7315 6.18742 255 255 255
11.3302 -9.29403 36.1711 255 255 255
70.8147 -11.4546 12.9502 255 255 255
-57.2178 -12.9024 -22.174 255 255 255
69.4083 -11.8974 8.67758 255 255 255
-64.1259 -12.9198 -21.9339 255 255 255
-66.1282 -13.2659 -21.5329 255 255 255
-22.5141 -10.3125 26.5492 255 255 255
-54.9331 -13.5361 -20.8703 255 255 255
13.2663 -10.2105 34.5184 255 255 255
68.9519 -12.6168 7.26657 255 255 255
68.9519 -12.6168 7.26657 255 255 255
74.8873 -11.3127 25.0339 255 255 255
74.9404 -11.3197 24.9627 255 255 255
65.9902 -13.2644 -1.68173 255 255 255
66.0142 -13.2651 -1.69782 255 255 255
71.0243 -12.2396 12.7057 255 255 255
71.0211 -12.2292 12.7001 255 255 255
71.0512 -12.2296 12.6512 255 255 255
-65.3634 -13.7035 -20.9664 255 255 255
56.4597 -14.6272 -18.8258 255 255 255
-66.4565 -14.0279 -21.2414 255 255 255
66.5 -13.6247 -0.238229 255 255 255
66.3295 -13.6147 0.0315113 255 255 255
-71.3941 -14.0938 -21.3132 255 255 255
75.1826 -12.0082 24.8117 255 255 255
-63.172 -14.4882 -20.3218 255 255 255
61.8937 -15.4612 -12.8585 255 255 255
-54.698 -15.5697 -18.6672 255 255 255
65.6046 -15.4041 -3.13417 255 255 255
76.3842 -13.0892 27.4744 255 255 255
-55.2022 -16.0244 -18.6121 255 255 255
64.2321 -16.6675 -7.85227 255 255 255
63.9216 -16.6129 -7.31536 255 255 255
70.229 -15.3421 8.54305 255 255 255
71.5231 -15.0824 12.0927 255 255 255
65.6306 -16.4642 -4.71337 255 255 255
-74.8983 -16.5132 -18.2163 255 255 255
69.0939 -16.1408 4.14269 255 255 255
70.4462 -16.7393 7.92286 255 255 255
70.4365 -16.732 7.91983 255 255 255
70.4627 -16.7242 7.89807 255 255 255
68.0493 -17.3979 1.19556 255 255 255
2.44313 -13.0964 39.4678 255 255 255
19.5392 -14.5126 30.0456 255 255 255
11.5277 -14.2006 35.7683 255 255 255
-58.1488 -18.8789 -14.1948 255 255 255
-58.1762 -18.8955 -14.3126 255 255 255
-18.6012 -14.4087 32.6785 255 255 255
-66.0501 -18.9632 -14.2261 255 255 255
-31.2487 -15.3153 26.1927 255 255 255
-20.2908 -15.0856 31.4726 255 255 255
4.10477 -14.5351 39.5793 255 255 255
-64.7967 -19.5735 -13.3339 255 255 255
-57.7789 -19.5134 -13.2446 255 255 255
70.9982 -19.0149 8.1498 255 255 255
71.1002 -19.0166 7.97193 255 255 255
-66.8357 -19.8898 -13.4897 255 255 255
12.2648 -16.234 35.396 255 255 255
-53.8909 -21.3705 -11.1765 255 255 255
73.5818 -19.8382 16.1015 255 255 255
-53.1287 -21.42 -10.944 255 255 255
-30.8766 -17.0942 27.9324 255 255 255
-30.8592 -17.0719 28.0992 255 255 255
-3.77944 -16.0349 40.1413 255 255 255
-3.76159 -16.0561 40.0403 255 255 255
70.538 -21.5254 2.57639 255 255 255
69.0568 -22.1793 0.385897 255 255 255
75.6596 -20.2648 20.1972 255 255 255
-69.8907 -23.5116 -9.25901 255 255 255
70.3486 -24.3469 2.22205 255 255 255
-60.8735 -25.71 -5.81293 255 255 255
13.1519 -20.441 37.6524 255 255 255
52.7266 -27.5739 -2.50957 255 255 255
74.6 -26.0567 11.8689 255 255 255
-17.3831 -21.2138 37.0397 255 255 255
-63.5468 -27.634 -4.83203 255 255 255
70.937 -29.2464 0.32017 255 255 255
-60.6139 -27.8189 -3.60555 255 255 255
75.9569 -28.4613 15.1038 255 255 255
75.9156 -28.4549 15.1771 255 255 255
-3.11274 -22.716 40.6892 255 255 255
3.51157 -23.1284 40.4926 255 255 255
-1.26815 -23.0308 41.1508 255 255 255
-32.1322 -27.0232 17.8877 255 255 255
-9.71545 -23.4124 40.3511 255 255 255
11.1505 -24.1509 38.1516 255 255 255
77.9667 -28.9968 18.9292 255 255 255
0.0890451 -23.8401 41.1424 255 255 255
75.1115 -30.313 15.0423 255 255 255
79.3872 -28.7541 24.331 255 255 255
73.2615 -33.1001 3.94384 255 255 255
-16.442 -24.8881 38.161 255 255 255
-62.2153 -31.8021 2.3415 255 255 255
-16.3207 -25.7669 39.1591 255 255 255
78.5336 -31.8251 19.3097 255 255 255
8.72379 -26.5364 39.9613 255 255 255
-64.9781 -33.2712 3.77589 255 255 255
-19.2425 -26.8431 40.2971 255 255 255
-27.6643 -29.5839 28.0185 255 255 255
-16.1958 -27.4251 41.1892 255 255 255
12.1564 -28.0392 41.3351 255 255 255
-19.3656 -27.4283 41.3759 255 255 255
-19.3634 -27.4347 41.373 255 255 255
79.5595 -34.3417 20.2282 255 255 255
-63.3556 -35.064 5.76366 255 255 255
10.5386 -28.3486 41.9128 255 255 255
76.5869 -36.9965 10.5555 255 255 255
80.1358 -35.9399 20.4377 255 255 255
-14.3523 -29.9516 40.6486 255 255 255
-0.509627 -29.8351 43.8964 255 255 255
5.08609 -30.1592 43.9209 255 255 255
-1.72001 -31.0614 43.2453 255 255 255
10.5445 -35.5903 36.9066 255 255 255
-16.2102 -36.2445 34.4959 255 255 255
-10.3741 -37.4429 36.6459 255 255 255
13.8602 -39.9999 31.8163 255 255 255
16.8643 -41.2951 31.0497 255 255 255
19.4827 -43.1257 31.0858 255 255 255
63.3034 -48.6516 25.9708 255 255 255
23.8365 -48.2592 27.3057 255 255 255
23.8294 -48.2445 27.2982 255 255 255
-9.51499 -47.3049 37.2873 255 255 255
32.3917 -52.8263 29.5552 255 255 255
30.5503 -53.5915 30.0163 255 255 255
62.3927 -54.4827 33.8121 255 255 255
-40.6962 -52.9789 29.1677 255 255 255
57.879 -56.5074 36.8168 255 255 255
-38.106 -55.6019 32.8458 255 255 255
56.1021 -58.1482 38.2873 255 255 255
-26.6722 -57.7401 35.7454 255 255 255
-26.6755 -57.725 35.7347 255 255 255
-32.9361 -58.0434 35.9584 255 255 255
24.2947 -59.5422 38.0896 255 255 255
-23.3686 -59.5693 38.0522 255 255 255
-20.2042 -59.9116 38.644 255 255 255
-44.1899 -60.3846 37.7347 255 255 255
-1.5344 -60.8471 39.5743 255 255 255
-14.2209 -60.4784 39.8238 255 255 255
-22.5387 -60.6864 39.6082 255 255 255
-0.333254 -61.55 40.267 255 255 255
-11.0532 -61.2634 40.3174 255 255 255
-8.36328 -61.365 40.4335 255 255 255
-16.4054 -61.4633 40.0937 255 255 255
-4.99687 -61.7995 41.1157 255 255 255
57.3557 -62.9315 45.4513 255 255 255
32.092 -63.2451 44.6288 255 255 255
61.2614 60.4642 -14.3416 255 255 255
-79.0429 63.6528 -30.4839 255 255 255
40.7297 84.0459 -93.431 255 255 255
83.1399 91.7696 -113.852 255 255 255
84.6577 91.8901 -113.833 255 255 255
26.1549 79.9348 -85.9884 255 255 255
39.402 82.587 -93.6189 255 255 255
-135.041 81.8587 -93.0603 255 255 255
-60.0989 64.9132 -41.2048 255 255 255
64.0543 57.041 -9.59152 255 255 255
64.0347 57.0335 -9.55841 255 255 255
-89.3759 60.3772 -25.1186 255 255 255
-31.8459 69.2504 -56.6154 255 255 255
-31.8459 69.2504 -56.6155 255 255 255
65.7453 86.2881 -106.386 255 255 255
-33.6426 68.8591 -56.9722 255 255 255
-33.6472 68.754 -56.8037 255 255 255
-4.84606 71.6158 -72.7048 255 255 255
32.0794 77.8869 -91.8113 255 255 255
32.0494 77.8549 -91.7001 255 255 255
-68.4069 61.4151 -39.328 255 255 255
34.8606 77.685 -94.1493 255 255 255
33.6885 76.9991 -93.8263 255 255 255
33.6885 76.9991 -93.8263 255 255 255
-7.15091 69.851 -73.1027 255 255 255
39.5773 76.2233 -92.248 255 255 255
37.6305 76.5476 -94.2716 255 255 255
64.3142 53.4292 -10.6316 255 255 255
63.558 53.718 -12.486 255 255 255
14.6282 72.7301 -84.778 255 255 255
20.6094 74.1656 -89.1899 255 255 255
-90.7123 56.8114 -28.8579 255 255 255
-90.6239 56.6608 -28.3232 255 255 255
-92.1059 55.9019 -26.6238 255 255 255
82.6018 83.4571 -119.968 255 255 255
64.6832 52.765 -11.805 255 255 255
57.933 43.8095 17.053 255 255 255
57.933 43.8096 17.053 255 255 255
-25.5959 63.836 -65.016 255 255 255
59.962 53.964 -22.6163 255 255 255
34.8464 72.4485 -98.0336 255 255 255
56.5646 43.3937 13.3908 255 255 255
57.2584 42.3675 15.3648 255 255 255
-6.10562 64.8216 -76.869 255 255 255
-6.09932 64.8452 -76.8877 255 255 255
-92.6674 52.3491 -29.3287 255 255 255
-89.1592 52.5073 -31.9732 255 255 255
-7.02269 63.8303 -78.0358 255 255 255
-135.324 70.7854 -100.844 255 255 255
-69.6051 53.3446 -44.1229 255 255 255
-114.957 59.2842 -66.891 255 255 255
-86.047 50.714 -34.3346 255 255 255
-93.8581 49.8178 -31.0526 255 255 255
64.1869 35.9942 28.761 255 255 255
57.2868 39.521 13.041 255 255 255
61.9677 36.9734 23.2027 255 255 255
-7.25088 59.82 -80.6542 255 255 255
59.9609 47.9033 -26.9777 255 255 255
59.9609 47.9033 -26.9777 255 255 255
73.6608 70.2477 -122.405 255 255 255
-47.3738 53.4774 -58.7652 255 255 255
64.5013 34.227 27.8758 255 255 255
-32.9428 54.3906 -67.9536 255 255 255
59.586 46.8241 -28.5141 255 255 255
-49.4172 51.7499 -59.2324 255 255 255
-44.0915 52.0741 -62.0601 255 255 255
-37.7721 52.7857 -66.173 255 255 255
-72.3816 48.1758 -46.5472 255 255 255
-85.5451 46.651 -39.1801 255 255 255
-93.8258 45.4366 -34.5712 255 255 255
-46.7035 49.8598 -62.2587 255 255 255
57.4114 34.4912 9.54237 255 255 255
-56.3246 46.9848 -58.0584 255 255 255
60.4785 32.6264 16.7586 255 255 255
-65.7272 45.3878 -53.3749 255 255 255
-43.4557 47.1241 -66.0456 255 255 255
-4.68678 51.6153 -88.309 255 255 255
7.44715 52.172 -94.5667 255 255 255
-58.9225 43.8235 -58.8494 255 255 255
-140.894 53.4939 -109.26 255 255 255
61.3572 29.1519 16.5563 255 255 255
-131.626 51.5779 -106.22 255 255 255
-30.5483 44.4249 -76.3542 255 255 255
56.669 39.2018 -41.4482 255 255 255
64.1993 35.9158 -23.9006 255 255 255
-6.42451 44.5022 -92.3508 255 255 255
-57.1212 37.9489 -63.9675 255 255 255
-57.1609 37.9772 -64.1739 255 255 255
27.803 42.4017 -92.5334 255 255 255
27.7679 42.2319 -91.9337 255 255 255
-134.988 44.4588 -98.3941 255 255 255
-125.213 44.0475 -96.7045 255 255 255
62.3708 32.8271 -29.4202 255 255 255
-60.8715 36.9444 -63.2824 255 255 255
66.7853 23.1989 26.9203 255 255 255
-38.8354 37.5592 -76.9195 255 255 255
-60.8218 35.4977 -62.8958 255 255 255
63.0756 23.7625 18.3781 255 255 255
62.3207 30.2545 -30.0494 255 255 255
62.3667 30.2622 -30.154 255 255 255
59.2065 24.6827 8.12399 255 255 255
60.3697 24.14 11.0735 255 255 255
-29.3797 36.675 -82.9816 255 255 255
27.6678 37.0124 -85.4477 255 255 255
1.30336 36.4063 -85.0287 255 255 255
59.3605 23.2908 7.54617 255 255 255
-36.752 34.4604 -80.958 255 255 255
-89.5933 30.4448 -48.2288 255 255 255
-89.5932 30.4448 -48.2285 255 255 255
-92.8313 29.6266 -47.9844 255 255 255
-75.1918 30.2525 -58.068 255 255 255
63.2072 26.7322 -30.4568 255 255 255
-70.1157 30.1603 -61.2482 255 255 255
-49.7883 31.0328 -76.0896 255 255 255
-9.89889 30.5905 -77.0544 255 255 255
-9.87393 30.6361 -77.3894 255 255 255
66.129 19.2568 21.9405 255 255 255
4.07763 30.4163 -77.6529 255 255 255
-87.6274 27.5734 -53.2809 255 255 255
-94.1983 25.4724 -50.3642 255 255 255
-90.3211 25.4694 -52.9789 255 255 255
-92.2743 25.0918 -53.8278 255 255 255
2.67209 25.4697 -70.3181 255 255 255
57.0401 18.8393 -1.83806 255 255 255
29.8895 24.1817 -68.6662 255 255 255
-120.781 25.1666 -73.3742 255 255 255
24.8769 23.3008 -67.8355 255 255 255
58.4453 16.8869 0.608874 255 255 255
59.8477 16.5668 3.69883 255 255 255
59.8405 16.5669 3.70664 255 255 255
-124.588 24.4805 -71.9967 255 255 255
57.7367 15.9712 -1.87779 255 255 255
-23.1752 20.3832 -63.7877 255 255 255
61.3612 14.6744 8.90095 255 255 255
-91.973 20.1865 -53.5895 255 255 255
61.5764 14.4149 7.01149 255 255 255
62.3193 14.3201 8.75854 255 255 255
63.7117 13.9018 12.9504 255 255 255
59.6224 14.3774 1.36581 255 255 255
58.0521 13.8036 -2.84264 255 255 255
58.0645 13.7905 -2.90941 255 255 255
60.1596 13.3365 2.58514 255 255 255
-14.8907 16.9824 -60.2222 255 255 255
56.1129 12.9732 -9.36274 255 255 255
-23.1085 15.2586 -53.7649 255 255 255
63.6451 11.2607 10.6013 255 255 255
64.0576 10.9082 11.7765 255 255 255
-62.1428 15.3704 -59.2314 255 255 255
-62.0661 15.3153 -58.9373 255 255 255
59.9256 11.3454 0.693193 255 255 255
58.5883 10.6765 -3.21858 255 255 255
-4.28939 7.66303 22.2742 255 255 255
-58.0445 11.7792 -54.4716 255 255 255
-58.0445 11.7792 -54.4716 255 255 255
59.7081 8.46822 -2.51436 255 255 255
-6.69157 6.57981 23.5719 255 255 255
66.3861 5.1625 13.2164 255 255 255
66.2403 4.93496 11.9403 255 255 255
66.0815 4.91789 12.2172 255 255 255
66.0815 4.9179 12.2171 255 255 255
7.8027 3.8144 27.8967 255 255 255
62.95 4.51379 3.99711 255 255 255
59.9762 4.24078 -4.73551 255 255 255
66.3247 4.02853 10.5673 255 255 255
67.2334 3.85343 14.5278 255 255 255
65.5782 3.84539 10.1343 255 255 255
-10.7731 2.85734 29.8888 255 255 255
-132.235 5.76924 -49.6753 255 255 255
-132.235 5.76924 -49.6753 255 255 255
66.8211 3.24691 13.0735 255 255 255
67.6424 3.24946 15.4437 255 255 255
-42.397 4.03552 -43.3551 255 255 255
65.8227 2.96274 10.2653 255 255 255
-51.0818 3.7821 -44.2481 255 255 255
63.437 2.26261 3.36234 255 255 255
-44.1041 2.84115 -41.6298 255 255 255
66.0497 2.09927 9.72044 255 255 255
62.3979 1.99244 0.572721 255 255 255
62.3979 1.99244 0.572682 255 255 255
69.5654 1.7722 20.5652 255 255 255
66.3813 1.55654 10.9719 255 255 255
68.9056 1.23379 17.1379 255 255 255
69.2782 1.175 18.0786 255 255 255
-18.2751 0.878595 25.0272 255 255 255
70.9287 1.05265 23.4494 255 255 255
71.4927 0.745917 24.0696 255 255 255
-51.5728 1.02414 -39.4534 255 255 255
-12.0752 0.486223 31.2108 255 255 255
67.9403 0.627336 14.1521 255 255 255
62.7802 0.550924 0.329917 255 255 255
68.8455 0.596676 16.3507 255 255 255
69.7934 0.413774 18.987 255 255 255
63.735 0.0421936 2.73322 255 255 255
63.7335 0.0340085 2.74363 255 255 255
64.8769 -0.0801783 4.67708 255 255 255
68.4856 -0.0857533 15.1994 255 255 255
67.622 -0.196128 12.6171 255 255 255
69.0837 -0.267819 16.6915 255 255 255
-22.5737 -0.414247 12.0884 255 255 255
68.1185 -0.787523 13.405 255 255 255
-11.3834 -1.15275 33.0689 255 255 255
68.8528 -1.52626 14.7791 255 255 255
71.0665 -1.86937 20.467 255 255 255
71.0666 -1.86936 20.467 255 255 255
68.6762 -2.2236 14.2816 255 255 255
-50.9332 -2.57088 -35.2356 255 255 255
70.31 -2.42802 18.2545 255 255 255
-122.87 -2.79843 -35.7931 255 255 255
-20.4697 -2.72113 25.7333 255 255 255
70.2827 -3.51617 17.0939 255 255 255
62.5793 -4.33974 -3.25642 255 255 255
71.1688 -3.59988 19.4737 255 255 255
69.2154 -4.20468 13.9987 255 255 255
-49.6701 -5.18268 -32.8051 255 255 255
4.39673 -3.84534 36.7864 255 255 255
70.788 -4.42223 18.2315 255 255 255
73.6707 -4.8447 25.7152 255 255 255
-13.5884 -4.38737 34.0874 255 255 255
68.1689 -5.50066 10.062 255 255 255
70.7019 -5.45974 17.2058 255 255 255
71.677 -5.53149 19.4501 255 255 255
66.8205 -6.24967 6.27667 255 255 255
3.40036 -5.19423 37.7663 255 255 255
-14.378 -5.39028 33.6013 255 255 255
-1.78226 -5.31769 38.4501 255 255 255
-1.76094 -5.29517 38.3534 255 255 255
63.241 -7.22564 -4.21904 255 255 255
72.5504 -6.52278 21.9244 255 255 255
4.74993 -5.89733 37.4737 255 255 255
66.2305 -7.76278 3.20258 255 255 255
74.9502 -6.73754 28.1774 255 255 255
58.2524 -8.68602 -18.5861 255 255 255
58.0435 -8.72526 -18.1685 255 255 255
60.7179 -8.42694 -12.703 255 255 255
67.6795 -7.74245 8.58328 255 255 255
57.3218 -9.49398 -22.2089 255 255 255
57.1759 -9.48316 -21.8524 255 255 255
-25.2818 -7.08301 20.782 255 255 255
-10.7121 -6.67272 36.7266 255 255 255
68.7262 -8.70646 9.4055 255 255 255
-32.9491 -7.89066 15.9695 255 255 255
68.2533 -9.41258 7.91028 255 255 255
66.9654 -9.88327 3.77035 255 255 255
66.9595 -9.87828 3.76912 255 255 255
-26.0913 -8.31304 22.4875 255 255 255
-24.6997 -8.43135 22.5443 255 255 255
-7.16299 -7.61991 38.4385 255 255 255
5.6299 -7.95789 37.8422 255 255 255
5.61311 -7.96042 37.88 255 255 255
-69.0545 -10.8909 -25.3766 255 255 255
69.2546 -10.5368 9.29681 255 255 255
-32.0652 -9.41199 18.1573 255 255 255
67.8585 -10.9358 5.20854 255 255 255
75.5378 -9.75366 27.4233 255 255 255
-21.7675 -9.11377 27.4404 255 255 255
73.2612 -10.2773 20.8841 255 255 255
73.3572 -10.2895 20.6861 255 255 255
-29.7489 -9.83563 18.3239 255 255 255
70.0171 -11.6853 10.6547 255 255 255
68.4828 -13.1939 5.84283 255 255 255
-25.4078 -10.9696 25.7554 255 255 255
-74.4636 -14.4704 -20.2815 255 255 255
70.4987 -13.4082 10.4129 255 255 255
-59.8 -14.7429 -19.7463 255 255 255
-59.8013 -14.7503 -19.7505 255 255 255
67.5772 -14.1114 2.09922 255 255 255
66.4073 -14.8728 -1.99333 255 255 255
69.3756 -14.1702 6.99711 255 255 255
-58.5656 -15.392 -18.9312 255 255 255
-59.4287 -15.6031 -18.7065 255 255 255
68.393 -15.2212 3.46914 255 255 255
69.2183 -15.108 5.54711 255 255 255
-22.3453 -12.7916 28.7509 255 255 255
-68.4198 -16.4541 -17.931 255 255 255
69.8061 -15.9724 6.87593 255 255 255
69.8582 -15.9703 6.7809 255 255 255
-62.1747 -17.1392 -16.5808 255 255 255
-66.3353 -17.2541 -16.5418 255 255 255
68.6522 -16.9275 3.09505 255 255 255
68.6366 -16.9423 3.15261 255 255 255
-21.511 -13.8138 29.4599 255 255 255
-17.7549 -13.6168 33.3455 255 255 255
76.9722 -15.515 25.5305 255 255 255
-11.8975 -13.5619 37.4953 255 255 255
-69.2567 -18.5405 -15.5967 255 255 255
69.4725 -17.9283 4.19193 255 255 255
75.3852 -16.3081 22.665 255 255 255
69.8362 -17.9547 5.39921 255 255 255
69.7757 -17.9751 5.44757 255 255 255
68.3626 -18.9836 0.850606 255 255 255
-1.32192 -14.3301 40.2144 255 255 255
69.635 -19.5411 4.12977 255 255 255
69.5967 -19.5548 4.16602 255 255 255
-71.2625 -19.9208 -13.6185 255 255 255
-68.4833 -20 -13.3625 255 255 255
1.52078 -15.3819 39.3748 255 255 255
0.408269 -15.4489 39.8652 255 255 255
68.8143 -20.6639 0.78188 255 255 255
75.0936 -19.6076 18.3985 255 255 255
74.5811 -19.5137 19.1044 255 255 255
-62.4164 -21.3835 -11.3801 255 255 255
2.0556 -16.2396 39.7495 255 255 255
2.06126 -16.2213 39.7777 255 255 255
71.2413 -21.4524 6.26123 255 255 255
69.9119 -22.0573 2.61903 255 255 255
77.0097 -19.3781 25.2166 255 255 255
75.7093 -19.9459 21.7556 255 255 255
-63.4946 -22.8633 -9.84051 255 255 255
-14.45 -17.6438 35.8377 255 255 255
-13.9624 -18.1746 36.1028 255 255 255
-61.4991 -23.9707 -7.51356 255 255 255
2.94313 -18.4281 39.1129 255 255 255
-6.72804 -18.353 39.1187 255 255 255
-21.2052 -19.4125 34.4508 255 255 255
-16.881 -19.4135 37.1442 255 255 255
74.228 -24.8001 10.3965 255 255 255
72.7976 -24.4694 12.3922 255 255 255
71.3489 -26.1739 3.82378 255 255 255
77.2087 -23.8601 21.7973 255 255 255
7.72394 -20.6734 37.8477 255 255 255
6.68541 -21.0564 37.81 255 255 255
4.3669 -21.141 38.4316 255 255 255
75.043 -26.4973 12.5328 255 255 255
2.56849 -21.2065 39.022 255 255 255
-24.3567 -21.8983 34.3923 255 255 255
-4.69101 -22.7528 41.041 255 255 255
11.898 -24.3195 37.7299 255 255 255
78.5009 -28.7808 21.8497 255 255 255
75.1297 -31.1417 10.4448 255 255 255
-62.1385 -31.3187 0.636258 255 255 255
-64.35 -33.9419 4.45453 255 255 255
-59.7389 -35.3561 6.30912 255 255 255
-23.7289 -30.8587 31.175 255 255 255
-8.45128 -28.84 42.8804 255 255 255
-15.9735 -29.4411 40.2688 255 255 255
-2.57438 -29.1023 43.4861 255 255 255
-24.8955 -31.8954 29.3593 255 255 255
-3.65125 -29.2891 43.4022 255 255 255
-61.4641 -36.7689 8.87791 255 255 255
-6.32877 -29.8911 44.0364 255 255 255
-7.93383 -30.0436 44.2889 255 255 255
-6.7872 -30.7332 45.1748 255 255 255
-12.1485 -32.5132 39.6951 255 255 255
-7.19125 -31.3108 45.2155 255 255 255
-24.0454 -35.5707 28.2582 255 255 255
-11.7676 -33.4404 39.0493 255 255 255
-105.005 -41.7748 13.733 255 255 255
57.7116 -44.144 18.2628 255 255 255
71.9891 -45.9485 22.4925 255 255 255
67.802 -46.9591 23.0416 255 255 255
-0.288346 -40.78 36.8688 255 255 255
65.4591 -48.2109 25.5539 255 255 255
62.6352 -49.6477 25.8748 255 255 255
13.5018 -46.3572 34.666 255 255 255
56.357 -51.0054 28.1789 255 255 255
-35.2065 -52.9871 29.9771 255 255 255
-31.0888 -54.4724 31.6723 255 255 255
58.0037 -57.6324 37.2097 255 255 255
40.766 -57.7477 35.5664 255 255 255
30.7918 -57.2884 36.6106 255 255 255
-2.84065 -58.3261 37.284 255 255 255
-3.69691 -59.2001 37.3429 255 255 255
-24.0586 -59.8667 38.0905 255 255 255
27.1502 -60.8064 40.7308 255 255 255
-14.0553 -60.0198 38.6037 255 255 255
-45.265 -59.8518 38.4663 255 255 255
51.6864 -61.3788 42.7493 255 255 255
28.9842 -61.4248 40.7317 255 255 255
-10.4775 -60.7591 39.947 255 255 255
-9.39193 -60.9739 39.812 255 255 255
-15.0918 -60.8564 39.7852 255 255 255
-8.01018 -60.9211 40.3681 255 255 255
-4.06322 -61.6007 40.7337 255 255 255
36.7849 -62.5058 43.3755 255 255 255
-12.257 -61.475 40.7227 255 255 255
-11.5518 -62.166 41.3604 255 255 255
-32.6658 71.5178 -55.12 255 255 255
4.01389 77.9655 -74.7645 255 255 255
-80.4517 63.2863 -29.8174 255 255 255
43.3795 84.5699 -95.6314 255 255 255
-81.9118 62.7706 -28.9011 255 255 255
-73.9556 63.9153 -33.4763 255 255 255
-73.9565 63.8915 -33.3326 255 255 255
-47.0553 68.1267 -48.1631 255 255 255
57.7573 62.3835 -24.5447 255 255 255
-60.887 65.5345 -40.3206 255 255 255
-60.8716 65.662 -40.6085 255 255 255
-7.19023 74.3655 -69.6471 255 255 255
62.2183 85.5364 -104.817 255 255 255
63.0302 57.3028 -12.3431 255 255 255
14.7788 76.8466 -81.4015 255 255 255
57.8656 60.3067 -23.9322 255 255 255
59.472 59.0458 -19.9275 255 255 255
-80.7913 60.9176 -31.4445 255 255 255
27.7231 78.5591 -89.0776 255 255 255
50.9559 82.1669 -99.7157 255 255 255
-3.28314 72.2767 -74.2809 255 255 255
61.7764 56.0877 -15.5753 255 255 255
63.5998 54.6606 -11.8241 255 255 255
-134.041 77.7931 -92.5668 255 255 255
75.5785 83.6424 -114.718 255 255 255
32.3908 75.9405 -93.9001 255 255 255
-129.575 74.1665 -86.5159 255 255 255
57.4136 79.0083 -104.244 255 255 255
57.3894 44.5105 17.4999 255 255 255
32.2517 74.8058 -94.592 255 255 255
2.96042 67.8148 -81.3556 255 255 255
-119.886 64.1917 -72.7853 255 255 255
-119.885 64.1915 -72.7846 255 255 255
-33.1944 59.5531 -62.9288 255 255 255
57.7352 51.2651 -29.6798 255 255 255
57.7951 51.3204 -29.8213 255 255 255
56.6806 40.6255 11.8297 255 255 255
59.2558 48.7509 -28.2559 255 255 255
64.8626 45.7067 -16.8523 255 255 255
61.1643 46.5008 -25.3089 255 255 255
-93.662 47.539 -32.5 255 255 255
59.5793 36.7569 16.8345 255 255 255
-22.6331 55.1807 -73.2016 255 255 255
-115 55.1124 -70.3822 255 255 255
-88.9482 46.7483 -36.5856 255 255 255
67.1969 31.9822 33.9079 255 255 255
67.8182 31.0859 35.1757 255 255 255
62.1589 32.9012 20.8771 255 255 255
60.2322 31.8988 15.3479 255 255 255
60.1777 31.878 15.4309 255 255 255
61.8018 31.1605 18.9588 255 255 255
61.7924 31.1679 18.9608 255 255 255
-52.2583 44.0523 -61.5776 255 255 255
61.4278 30.2067 17.7241 255 255 255
58.4138 31.0841 10.918 255 255 255
57.7267 31.3104 8.72815 255 255 255
57.7267 31.3104 8.7282 255 255 255
60.1178 29.4404 13.0655 255 255 255
66.1643 26.8442 27.3663 255 255 255
-85.5933 37.8891 -46.5108 255 255 255
65.8184 25.6623 25.8438 255 255 255
61.0367 26.7466 14.5687 255 255 255
-89.7738 35.5737 -45.3852 255 255 255
63.2636 31.7346 -27.9191 255 255 255
66.1425 23.5273 25.3128 255 255 255
68.9873 22.563 32.5652 255 255 255
68.9872 22.563 32.5652 255 255 255
61.9339 31.5696 -31.4962 255 255 255
60.6913 24.9475 12.4554 255 255 255
60.8435 24.9939 12.3046 255 255 255
-0.625336 38.9804 -88.1122 255 255 255
67.9007 21.804 28.8702 255 255 255
57.5604 24.6657 3.28393 255 255 255
-0.491238 35.8479 -83.7302 255 255 255
57.5956 30.5143 -43.9703 255 255 255
60.6119 22.6747 10.758 255 255 255
64.5882 21.0302 19.7205 255 255 255
60.576 21.3845 9.68247 255 255 255
60.6998 21.4184 9.58055 255 255 255
57.3802 21.8292 1.46512 255 255 255
61.012 20.4476 11.6853 255 255 255
58.7656 20.8924 2.10053 255 255 255
-68.6904 28.1203 -63.4148 255 255 255
63.4744 18.9285 15.3376 255 255 255
-31.135 27.7264 -71.4302 255 255 255
0.507662 24.2274 -69.9043 255 255 255
59.0315 17.5061 2.40755 255 255 255
61.0989 16.8688 7.69796 255 255 255
-75.7403 23.5261 -66.2458 255 255 255
-72.9613 23.0465 -66.8971 255 255 255
-19.6077 18.683 -61.8315 255 255 255
65.2202 12.499 15.8222 255 255 255
-20.8552 16.7301 -56.7044 255 255 255
60.9935 12.5195 3.7535 255 255 255
65.531 11.0298 14.9681 255 255 255
68.4504 10.83 20.1553 255 255 255
65.0483 9.43411 12.5534 255 255 255
-91.4513 13.3957 -56.6828 255 255 255
70.23 8.51645 23.0826 255 255 255
-5.41677 7.07808 22.8231 255 255 255
-52.125 9.99844 -49.7261 255 255 255
-48.7758 9.72157 -49.8331 255 255 255
65.4241 5.12887 10.6976 255 255 255
70.2464 2.82052 24.219 255 255 255
65.4106 2.8301 9.10861 255 255 255
65.4106 2.8301 9.10867 255 255 255
69.2508 2.27024 19.4605 255 255 255
71.4688 1.64159 24.933 255 255 255
67.3357 1.56404 12.9264 255 255 255
68.0214 1.66745 15.0166 255 255 255
70.4496 -0.38791 20.1066 255 255 255
74.2428 -0.751667 29.7815 255 255 255
72.5723 -0.745334 25.6631 255 255 255
-78.3179 -0.957351 -37.1191 255 255 255
58.277 -2.42686 -12.071 255 255 255
69.4401 -2.62427 15.8999 255 255 255
73.3383 -2.45637 24.7863 255 255 255
73.3384 -2.45637 24.7862 255 255 255
67.5769 -3.42155 10.2593 255 255 255
70.5429 -3.58655 18.0009 255 255 255
70.5429 -3.58655 18.0009 255 255 255
72.2545 -3.93198 22.2819 255 255 255
74.4956 -4.66544 28.8201 255 255 255
-70.8316 -6.69072 -31.1536 255 255 255
-64.1069 -7.2712 -29.4167 255 255 255
59.5236 -7.88652 -15.2987 255 255 255
59.6088 -7.88561 -15.4301 255 255 255
-74.7473 -7.59766 -29.6156 255 255 255
-74.5837 -7.56212 -28.8011 255 255 255
